# .PCD v0.7 - Point Cloud Data file format
VERSION 0.7
FIELDS x y z
SIZE 4 4 4
TYPE F F F
COUNT 1 1 1
WIDTH 4176
HEIGHT 1
VIEWPOINT 0 0 0 1 0 0 0
POINTS 4176
DATA ascii
23 78 -0
23 79 -0
23 80 -0
23 81 -0
23 82 -0
23 83 -0
23 84 -0
23 85 -0
23 86 -0
23 87 -0
23 88 -0
23 89 -0
23 90 -0
23 91 -0
23 92 -0
23 93 -0
23 94 -0
23 95 -0
23 96 -0
23 97 -0
23 98 -0
23 99 -0
23 100 -0
23 101 -0
23 102 -0
23 103 -0
23 104 -0
23 105 -0
23 106 -0
23 107 -0
23 108 -0
23 109 -0
23 110 -0
23 111 -0
23 112 -0
23 113 -0
23 114 -0
23 115 -0
23 116 -0
23 117 -0
23 118 -0
23 119 -0
23 120 -0
23 121 -0
23 122 -0
23 123 -0
23 124 -0
23 125 -0
23 126 -0
23 127 -0
23 128 -0
23 129 -0
23 130 -0
23 131 -0
23 132 -0
23 133 -0
23 134 -0
23 135 -0
23 136 -0
23 137 -0
23 138 -0
23 139 -0
23 140 -0
23 141 -0
23 142 -0
23 143 -0
23 144 -0
23 145 -0
23 146 -0
23 147 -0
23 148 -0
23 149 -0
23 150 -0
23 151 -0
23 152 -0
23 153 -0
23 154 -0
23 155 -0
23 156 -0
23 157 -0
23 158 -0
23 159 -0
23 160 -0
23 161 -0
23 162 -0
23 163 -0
23 164 -0
23 165 -0
23 166 -0
23 167 -0
23 168 -0
23 169 -0
23 170 -0
23 171 -0
23 172 -0
23 173 -0
23 174 -0
23 175 -0
23 176 -0
23 177 -0
23 178 -0
23 179 -0
24 0 -0
24 1 -0
24 2 -0
24 3 -0
24 4 -0
24 5 -0
24 6 -0
24 7 -0
24 8 -0
24 9 -0
24 10 -0
24 11 -0
24 12 -0
24 13 -0
24 14 -0
24 15 -0
24 16 -0
24 17 -0
24 18 -0
24 19 -0
24 20 -0
24 21 -0
24 22 -0
24 23 -0
24 24 -0
24 25 -0
24 26 -0
24 27 -0
24 28 89.5
24 29 -0
24 30 -0
24 31 -0
24 32 -0
24 33 -0
24 34 -0
24 35 -0
24 36 -0
24 37 -0
24 38 -0
24 39 -0
24 40 -0
24 41 -0
24 42 -0
24 43 -0
24 44 -0
24 45 -0
24 46 -0
24 47 -0
24 48 -0
24 49 -0
24 50 -0
24 51 -0
24 52 -0
24 53 -0
24 54 -0
24 55 -0
24 56 -0
24 57 -0
24 58 -0
24 59 -0
24 60 -0
24 61 -0
24 62 -0
24 63 -0
24 64 -0
24 65 -0
24 66 -0
24 67 -0
24 68 -0
24 69 -0
24 70 -0
24 71 -0
24 72 -0
24 73 -0
24 74 -0
24 75 -0
24 76 -0
24 77 -0
24 78 -0
24 79 -0
24 80 -0
24 81 -0
24 82 -0
24 83 -0
24 84 -0
24 85 -0
24 86 -0
24 87 -0
24 88 -0
24 89 -0
24 90 -0
24 91 -0
24 92 -0
24 93 -0
24 94 -0
24 95 -0
24 96 -0
24 97 -0
24 98 -0
24 99 -0
24 100 -0
24 101 -0
24 102 -0
24 103 89.5
24 104 89.5
24 105 29.699997
24 106 29.999998
24 107 30.299997
24 108 30.399998
24 109 30.399998
24 110 89.5
24 111 89.5
24 112 89.5
24 113 89.5
24 114 -0
24 115 -0
24 116 -0
24 117 -0
24 118 -0
24 119 -0
24 120 -0
24 121 -0
24 122 -0
24 123 -0
24 124 -0
24 125 -0
24 126 -0
24 127 -0
24 128 -0
24 129 -0
24 130 -0
24 131 -0
24 132 -0
24 133 -0
24 134 -0
24 135 -0
24 136 -0
24 137 -0
24 138 -0
24 139 -0
24 140 -0
24 141 -0
24 142 -0
24 143 -0
24 144 -0
24 145 -0
24 146 -0
24 147 -0
24 148 -0
24 149 -0
24 150 -0
24 151 -0
24 152 -0
24 153 -0
24 154 -0
24 155 -0
24 156 -0
24 157 -0
24 158 -0
24 159 -0
24 160 -0
24 161 -0
24 162 -0
24 163 -0
24 164 -0
24 165 -0
24 166 -0
24 167 -0
24 168 -0
24 169 -0
24 170 -0
24 171 -0
24 172 -0
24 173 -0
24 174 -0
24 175 -0
24 176 -0
24 177 -0
24 178 -0
24 179 -0
25 0 -0
25 1 -0
25 2 -0
25 3 -0
25 4 -0
25 5 -0
25 6 -0
25 7 -0
25 8 -0
25 9 -0
25 10 -0
25 11 -0
25 12 -0
25 13 -0
25 14 -0
25 15 -0
25 16 -0
25 17 -0
25 18 -0
25 19 -0
25 20 -0
25 21 -0
25 22 -0
25 23 -0
25 24 -0
25 25 -0
25 26 -0
25 27 -0
25 28 -0
25 29 -0
25 30 -0
25 31 -0
25 32 -0
25 33 -0
25 34 -0
25 35 -0
25 36 -0
25 37 -0
25 38 -0
25 39 -0
25 40 -0
25 41 -0
25 42 -0
25 43 -0
25 44 -0
25 45 -0
25 46 -0
25 47 -0
25 48 -0
25 49 -0
25 50 -0
25 51 -0
25 52 -0
25 53 -0
25 54 -0
25 55 -0
25 56 -0
25 57 -0
25 58 -0
25 59 -0
25 60 -0
25 61 -0
25 62 -0
25 63 -0
25 64 -0
25 65 -0
25 66 -0
25 67 -0
25 68 -0
25 69 -0
25 70 -0
25 71 -0
25 72 -0
25 73 -0
25 74 -0
25 75 -0
25 76 -0
25 77 -0
25 78 -0
25 79 -0
25 80 -0
25 81 -0
25 82 -0
25 83 -0
25 84 -0
25 85 -0
25 86 -0
25 87 -0
25 88 -0
25 89 -0
25 90 -0
25 91 -0
25 92 -0
25 93 -0
25 94 -0
25 95 -0
25 96 -0
25 97 -0
25 98 -0
25 99 89.5
25 100 89.5
25 101 27.199997
25 102 27.399998
25 103 27.999996
25 104 28.799997
25 105 29.799997
25 106 30.399998
25 107 31.099997
25 108 31.199997
25 109 31.199997
25 110 30.999998
25 111 89.5
25 112 89.5
25 113 89.5
25 114 89.5
25 115 -0
25 116 -0
25 117 -0
25 118 -0
25 119 -0
25 120 -0
25 121 -0
25 122 -0
25 123 -0
25 124 -0
25 125 -0
25 126 -0
25 127 -0
25 128 -0
25 129 -0
25 130 -0
25 131 -0
25 132 -0
25 133 -0
25 134 -0
25 135 -0
25 136 -0
25 137 -0
25 138 -0
25 139 -0
25 140 -0
25 141 -0
25 142 -0
25 143 -0
25 144 -0
25 145 -0
25 146 -0
25 147 -0
25 148 -0
25 149 -0
25 150 -0
25 151 -0
25 152 -0
25 153 -0
25 154 -0
25 155 -0
25 156 -0
25 157 -0
25 158 -0
25 159 -0
25 160 -0
25 161 -0
25 162 -0
25 163 -0
25 164 -0
25 165 -0
25 166 -0
25 167 -0
25 168 -0
25 169 -0
25 170 -0
25 171 -0
25 172 -0
25 173 -0
25 174 -0
25 175 -0
25 176 -0
25 177 -0
25 178 -0
25 179 -0
26 0 -0
26 1 -0
26 2 -0
26 3 -0
26 4 -0
26 5 -0
26 6 -0
26 7 -0
26 8 -0
26 9 -0
26 10 -0
26 11 -0
26 12 -0
26 13 -0
26 14 -0
26 15 -0
26 16 -0
26 17 -0
26 18 -0
26 19 -0
26 20 -0
26 21 -0
26 22 -0
26 23 -0
26 24 -0
26 25 -0
26 26 -0
26 27 -0
26 28 -0
26 29 -0
26 30 -0
26 31 -0
26 32 -0
26 33 -0
26 34 -0
26 35 -0
26 36 -0
26 37 -0
26 38 -0
26 39 -0
26 40 -0
26 41 -0
26 42 -0
26 43 -0
26 44 -0
26 45 -0
26 46 -0
26 47 -0
26 48 -0
26 49 -0
26 50 -0
26 51 -0
26 52 -0
26 53 -0
26 54 -0
26 55 -0
26 56 -0
26 57 -0
26 58 -0
26 59 -0
26 60 -0
26 61 -0
26 62 -0
26 63 -0
26 64 -0
26 65 -0
26 66 -0
26 67 -0
26 68 -0
26 69 -0
26 70 -0
26 71 -0
26 72 -0
26 73 -0
26 74 -0
26 75 -0
26 76 -0
26 77 -0
26 78 -0
26 79 -0
26 80 -0
26 81 -0
26 82 -0
26 83 -0
26 84 -0
26 85 -0
26 86 -0
26 87 -0
26 88 -0
26 89 -0
26 90 -0
26 91 -0
26 92 -0
26 93 -0
26 94 -0
26 95 -0
26 96 -0
26 97 89.5
26 98 89.5
26 99 25.399998
26 100 25.699997
26 101 25.899998
26 102 25.799997
26 103 25.399998
26 104 89.5
26 105 22.799997
26 106 21.899998
26 107 89.5
26 108 89.5
26 109 31.999998
26 110 32.099998
26 111 89.5
26 112 89.5
26 113 89.5
26 114 89.5
26 115 89.5
26 116 -0
26 117 89.5
26 118 -0
26 119 -0
26 120 -0
26 121 -0
26 122 -0
26 123 -0
26 124 -0
26 125 -0
26 126 -0
26 127 -0
26 128 -0
26 129 -0
26 130 -0
26 131 -0
26 132 -0
26 133 -0
26 134 -0
26 135 -0
26 136 -0
26 137 -0
26 138 -0
26 139 -0
26 140 -0
26 141 -0
26 142 -0
26 143 -0
26 144 -0
26 145 -0
26 146 -0
26 147 -0
26 148 -0
26 149 -0
26 150 -0
26 151 -0
26 152 -0
26 153 -0
26 154 -0
26 155 -0
26 156 -0
26 157 -0
26 158 -0
26 159 -0
26 160 -0
26 161 -0
26 162 -0
26 163 -0
26 164 -0
26 165 -0
26 166 1.7999958
26 167 -0
26 168 -0
26 169 -0
26 170 -0
26 171 -0
26 172 -0
26 173 -0
26 174 -0
26 175 -0
26 176 -0
26 177 -0
26 178 -0
26 179 -0
27 0 -0
27 1 -0
27 2 -0
27 3 -0
27 4 -0
27 5 -0
27 6 -0
27 7 -0
27 8 -0
27 9 -0
27 10 -0
27 11 -0
27 12 -0
27 13 -0
27 14 -0
27 15 -0
27 16 -0
27 17 -0
27 18 -0
27 19 -0
27 20 -0
27 21 -0
27 22 -0
27 23 -0
27 24 -0
27 25 -0
27 26 -0
27 27 -0
27 28 -0
27 29 -0
27 30 -0
27 31 -0
27 32 -0
27 33 -0
27 34 -0
27 35 -0
27 36 -0
27 37 -0
27 38 -0
27 39 -0
27 40 -0
27 41 -0
27 42 -0
27 43 -0
27 44 -0
27 45 -0
27 46 -0
27 47 -0
27 48 -0
27 49 -0
27 50 -0
27 51 -0
27 52 -0
27 53 -0
27 54 -0
27 55 -0
27 56 -0
27 57 -0
27 58 -0
27 59 -0
27 60 -0
27 61 -0
27 62 -0
27 63 89.5
27 64 -0
27 65 -0
27 66 -0
27 67 -0
27 68 -0
27 69 -0
27 70 -0
27 71 -0
27 72 -0
27 73 -0
27 74 -0
27 75 -0
27 76 -0
27 77 -0
27 78 -0
27 79 89.5
27 80 -0
27 81 -0
27 82 -0
27 83 -0
27 84 -0
27 85 -0
27 86 -0
27 87 -0
27 88 -0
27 89 -0
27 90 -0
27 91 -0
27 92 -0
27 93 -0
27 94 -0
27 95 -0
27 96 89.5
27 97 89.5
27 98 25.099997
27 99 25.099997
27 100 25.099997
27 101 25.099997
27 102 24.699997
27 103 24.099997
27 104 21.399998
27 105 20.099997
27 106 20.199997
27 107 20.399996
27 108 89.5
27 109 32.799995
27 110 32.899998
27 111 89.5
27 112 89.5
27 113 89.5
27 114 89.5
27 115 89.5
27 116 89.5
27 117 -0
27 118 -0
27 119 -0
27 120 -0
27 121 -0
27 122 -0
27 123 -0
27 124 -0
27 125 -0
27 126 -0
27 127 -0
27 128 -0
27 129 -0
27 130 -0
27 131 -0
27 132 -0
27 133 -0
27 134 -0
27 135 -0
27 136 -0
27 137 -0
27 138 -0
27 139 -0
27 140 -0
27 141 -0
27 142 -0
27 143 -0
27 144 -0
27 145 -0
27 146 -0
27 147 -0
27 148 -0
27 149 -0
27 150 -0
27 151 -0
27 152 -0
27 153 -0
27 154 -0
27 155 -0
27 156 -0
27 157 -0
27 158 -0
27 159 -0
27 160 -0
27 161 -0
27 162 -0
27 163 -0
27 164 -0
27 165 -0
27 166 -0
27 167 -0
27 168 -0
27 169 -0
27 170 -0
27 171 -0
27 172 -0
27 173 -0
27 174 -0
27 175 -0
27 176 -0
27 177 -0
27 178 -0
27 179 -0
28 0 -0
28 1 -0
28 2 -0
28 3 -0
28 4 -0
28 5 -0
28 6 -0
28 7 -0
28 8 -0
28 9 -0
28 10 -0
28 11 -0
28 12 -0
28 13 -0
28 14 -0
28 15 -0
28 16 -0
28 17 -0
28 18 -0
28 19 -0
28 20 -0
28 21 -0
28 22 -0
28 23 -0
28 24 -0
28 25 -0
28 26 -0
28 27 -0
28 28 -0
28 29 -0
28 30 -0
28 31 -0
28 32 -0
28 33 -0
28 34 -0
28 35 -0
28 36 -0
28 37 -0
28 38 -0
28 39 -0
28 40 -0
28 41 -0
28 42 -0
28 43 -0
28 44 -0
28 45 -0
28 46 -0
28 47 -0
28 48 -0
28 49 -0
28 50 -0
28 51 -0
28 52 -0
28 53 -0
28 54 -0
28 55 -0
28 56 -0
28 57 -0
28 58 -0
28 59 -0
28 60 -0
28 61 -0
28 62 -0
28 63 -0
28 64 -0
28 65 -0
28 66 -0
28 67 -0
28 68 -0
28 69 -0
28 70 -0
28 71 -0
28 72 -0
28 73 -0
28 74 -0
28 75 -0
28 76 -0
28 77 -0
28 78 -0
28 79 -0
28 80 -0
28 81 -0
28 82 -0
28 83 -0
28 84 -0
28 85 -0
28 86 -0
28 87 -0
28 88 -0
28 89 -0
28 90 -0
28 91 -0
28 92 -0
28 93 -0
28 94 -0
28 95 -0
28 96 89.5
28 97 25.299997
28 98 25.299997
28 99 25.199997
28 100 89.5
28 101 89.5
28 102 18.999996
28 103 18.799997
28 104 18.399996
28 105 18.399996
28 106 18.499996
28 107 18.499996
28 108 89.5
28 109 89.5
28 110 33.199997
28 111 33.199997
28 112 89.5
28 113 89.5
28 114 89.5
28 115 89.5
28 116 89.5
28 117 -0
28 118 -0
28 119 -0
28 120 -0
28 121 -0
28 122 -0
28 123 -0
28 124 -0
28 125 -0
28 126 -0
28 127 -0
28 128 -0
28 129 -0
28 130 -0
28 131 -0
28 132 -0
28 133 -0
28 134 -0
28 135 -0
28 136 -0
28 137 -0
28 138 -0
28 139 89.5
28 140 -0
28 141 -0
28 142 89.5
28 143 89.5
28 144 89.5
28 145 89.5
28 146 89.5
28 147 -0
28 148 -0
28 149 -0
28 150 -0
28 151 -0
28 152 -0
28 153 -0
28 154 -0
28 155 -0
28 156 -0
28 157 -0
28 158 -0
28 159 -0
28 160 -0
28 161 -0
28 162 -0
28 163 -0
28 164 -0
28 165 -0
28 166 -0
28 167 -0
28 168 -0
28 169 -0
28 170 -0
28 171 -0
28 172 -0
28 173 -0
28 174 -0
28 175 -0
28 176 -0
28 177 -0
28 178 -0
28 179 -0
29 0 -0
29 1 -0
29 2 -0
29 3 -0
29 4 -0
29 5 -0
29 6 -0
29 7 -0
29 8 -0
29 9 -0
29 10 -0
29 11 -0
29 12 -0
29 13 -0
29 14 -0
29 15 -0
29 16 -0
29 17 -0
29 18 -0
29 19 -0
29 20 -0
29 21 -0
29 22 -0
29 23 -0
29 24 -0
29 25 -0
29 26 -0
29 27 -0
29 28 -0
29 29 -0
29 30 -0
29 31 -0
29 32 -0
29 33 -0
29 34 -0
29 35 -0
29 36 -0
29 37 -0
29 38 -0
29 39 -0
29 40 -0
29 41 -0
29 42 -0
29 43 -0
29 44 -0
29 45 -0
29 46 -0
29 47 -0
29 48 -0
29 49 -0
29 50 -0
29 51 -0
29 52 -0
29 53 -0
29 54 -0
29 55 -0
29 56 -0
29 57 -0
29 58 -0
29 59 -0
29 60 -0
29 61 -0
29 62 -0
29 63 -0
29 64 -0
29 65 -0
29 66 -0
29 67 -0
29 68 -0
29 69 -0
29 70 -0
29 71 -0
29 72 -0
29 73 -0
29 74 -0
29 75 -0
29 76 -0
29 77 -0
29 78 -0
29 79 -0
29 80 -0
29 81 -0
29 82 -0
29 83 -0
29 84 -0
29 85 -0
29 86 -0
29 87 -0
29 88 -0
29 89 -0
29 90 -0
29 91 -0
29 92 -0
29 93 -0
29 94 89.5
29 95 89.5
29 96 26.499996
29 97 26.399998
29 98 26.299997
29 99 89.5
29 100 89.5
29 101 19.099997
29 102 18.899996
29 103 18.499996
29 104 18.099997
29 105 17.999996
29 106 17.999996
29 107 89.5
29 108 89.5
29 109 34.599998
29 110 34.299999
29 111 33.999996
29 112 33.999996
29 113 89.5
29 114 89.5
29 115 89.5
29 116 25.399998
29 117 89.5
29 118 89.5
29 119 89.5
29 120 89.5
29 121 89.5
29 122 -0
29 123 -0
29 124 -0
29 125 -0
29 126 -0
29 127 -0
29 128 89.5
29 129 89.5
29 130 89.5
29 131 26.799997
29 132 27.399998
29 133 27.999996
29 134 28.299997
29 135 28.299997
29 136 28.299997
29 137 28.399998
29 138 28.399998
29 139 28.699997
29 140 29.299997
29 141 29.699997
29 142 30.299997
29 143 30.399998
29 144 30.399998
29 145 30.399998
29 146 30.399998
29 147 -0
29 148 -0
29 149 -0
29 150 -0
29 151 -0
29 152 -0
29 153 -0
29 154 -0
29 155 -0
29 156 -0
29 157 -0
29 158 -0
29 159 -0
29 160 -0
29 161 -0
29 162 -0
29 163 -0
29 164 -0
29 165 -0
29 166 -0
29 167 -0
29 168 -0
29 169 -0
29 170 -0
29 171 -0
29 172 -0
29 173 -0
29 174 -0
29 175 -0
29 176 -0
29 177 -0
29 178 -0
29 179 -0
30 0 -0
30 1 -0
30 2 -0
30 3 -0
30 4 -0
30 5 -0
30 6 -0
30 7 -0
30 8 -0
30 9 -0
30 10 -0
30 11 -0
30 12 -0
30 13 -0
30 14 -0
30 15 -0
30 16 -0
30 17 -0
30 18 -0
30 19 -0
30 20 -0
30 21 -0
30 22 -0
30 23 -0
30 24 -0
30 25 -0
30 26 -0
30 27 -0
30 28 -0
30 29 -0
30 30 -0
30 31 -0
30 32 -0
30 33 -0
30 34 -0
30 35 -0
30 36 -0
30 37 -0
30 38 -0
30 39 -0
30 40 -0
30 41 -0
30 42 -0
30 43 -0
30 44 -0
30 45 -0
30 46 -0
30 47 -0
30 48 -0
30 49 -0
30 50 -0
30 51 -0
30 52 -0
30 53 -0
30 54 -0
30 55 -0
30 56 -0
30 57 -0
30 58 -0
30 59 -0
30 60 -0
30 61 -0
30 62 -0
30 63 -0
30 64 -0
30 65 -0
30 66 -0
30 67 -0
30 68 -0
30 69 -0
30 70 -0
30 71 -0
30 72 -0
30 73 -0
30 74 -0
30 75 -0
30 76 -0
30 77 -0
30 78 -0
30 79 -0
30 80 -0
30 81 -0
30 82 -0
30 83 -0
30 84 -0
30 85 -0
30 86 -0
30 87 -0
30 88 -0
30 89 -0
30 90 -0
30 91 -0
30 92 -0
30 93 89.5
30 94 89.5
30 95 27.399998
30 96 27.399998
30 97 27.499996
30 98 27.699997
30 99 28.099997
30 100 89.5
30 101 89.5
30 102 28.599997
30 103 28.599997
30 104 28.699997
30 105 29.099997
30 106 29.299997
30 107 29.399998
30 108 89.5
30 109 34.799999
30 110 34.799999
30 111 34.799999
30 112 34.799999
30 113 89.5
30 114 89.5
30 115 89.5
30 116 25.699997
30 117 25.999996
30 118 26.099997
30 119 26.199997
30 120 26.299997
30 121 89.5
30 122 89.5
30 123 89.5
30 124 89.5
30 125 89.5
30 126 89.5
30 127 89.5
30 128 89.5
30 129 89.5
30 130 27.299997
30 131 27.499996
30 132 27.599997
30 133 27.899998
30 134 28.199997
30 135 28.299997
30 136 28.299997
30 137 28.399998
30 138 28.599997
30 139 28.999996
30 140 29.299997
30 141 29.399998
30 142 29.499998
30 143 29.699997
30 144 29.899998
30 145 29.999998
30 146 30.199997
30 147 -0
30 148 -0
30 149 -0
30 150 -0
30 151 -0
30 152 -0
30 153 -0
30 154 -0
30 155 -0
30 156 -0
30 157 -0
30 158 -0
30 159 -0
30 160 -0
30 161 -0
30 162 -0
30 163 -0
30 164 -0
30 165 -0
30 166 -0
30 167 -0
30 168 -0
30 169 -0
30 170 -0
30 171 -0
30 172 -0
30 173 -0
30 174 -0
30 175 -0
30 176 -0
30 177 -0
30 178 -0
30 179 -0
31 0 -0
31 1 -0
31 2 -0
31 3 -0
31 4 -0
31 5 -0
31 6 -0
31 7 -0
31 8 -0
31 9 -0
31 10 -0
31 11 -0
31 12 -0
31 13 -0
31 14 -0
31 15 -0
31 16 -0
31 17 -0
31 18 -0
31 19 -0
31 20 -0
31 21 -0
31 22 -0
31 23 -0
31 24 -0
31 25 -0
31 26 -0
31 27 -0
31 28 -0
31 29 -0
31 30 -0
31 31 -0
31 32 -0
31 33 -0
31 34 -0
31 35 -0
31 36 -0
31 37 -0
31 38 -0
31 39 -0
31 40 -0
31 41 -0
31 42 -0
31 43 -0
31 44 -0
31 45 -0
31 46 -0
31 47 -0
31 48 -0
31 49 -0
31 50 -0
31 51 -0
31 52 -0
31 53 -0
31 54 -0
31 55 -0
31 56 -0
31 57 -0
31 58 -0
31 59 -0
31 60 -0
31 61 -0
31 62 -0
31 63 -0
31 64 -0
31 65 -0
31 66 -0
31 67 -0
31 68 -0
31 69 -0
31 70 -0
31 71 -0
31 72 -0
31 73 -0
31 74 -0
31 75 -0
31 76 -0
31 77 -0
31 78 -0
31 79 -0
31 80 -0
31 81 -0
31 82 -0
31 83 -0
31 84 -0
31 85 -0
31 86 -0
31 87 -0
31 88 -0
31 89 -0
31 90 -0
31 91 -0
31 92 -0
31 93 89.5
31 94 89.5
31 95 27.499996
31 96 27.499996
31 97 27.599997
31 98 27.599997
31 99 27.499996
31 100 27.499996
31 101 27.399998
31 102 27.199997
31 103 27.199997
31 104 28.199997
31 105 28.899998
31 106 29.299997
31 107 29.399998
31 108 89.5
31 109 89.5
31 110 35.599998
31 111 35.599998
31 112 35.499996
31 113 35.499996
31 114 89.5
31 115 89.5
31 116 89.5
31 117 89.5
31 118 25.999996
31 119 89.5
31 120 89.5
31 121 39.499996
31 122 39.299999
31 123 39.199997
31 124 39.199997
31 125 39.199997
31 126 89.5
31 127 89.5
31 128 89.5
31 129 89.5
31 130 27.499996
31 131 27.599997
31 132 27.699997
31 133 27.799997
31 134 27.999996
31 135 28.099997
31 136 28.099997
31 137 28.399998
31 138 28.599997
31 139 29.099997
31 140 29.399998
31 141 29.399998
31 142 29.399998
31 143 29.399998
31 144 29.499998
31 145 29.599997
31 146 29.699997
31 147 -0
31 148 -0
31 149 -0
31 150 -0
31 151 -0
31 152 -0
31 153 -0
31 154 -0
31 155 -0
31 156 -0
31 157 -0
31 158 -0
31 159 -0
31 160 -0
31 161 -0
31 162 -0
31 163 -0
31 164 -0
31 165 -0
31 166 -0
31 167 -0
31 168 -0
31 169 -0
31 170 -0
31 171 -0
31 172 -0
31 173 -0
31 174 -0
31 175 -0
31 176 -0
31 177 -0
31 178 -0
31 179 -0
32 0 -0
32 1 -0
32 2 -0
32 3 -0
32 4 -0
32 5 -0
32 6 -0
32 7 -0
32 8 -0
32 9 -0
32 10 -0
32 11 -0
32 12 -0
32 13 -0
32 14 -0
32 15 -0
32 16 -0
32 17 -0
32 18 -0
32 19 -0
32 20 -0
32 21 -0
32 22 -0
32 23 -0
32 24 -0
32 25 -0
32 26 -0
32 27 -0
32 28 -0
32 29 -0
32 30 -0
32 31 -0
32 32 -0
32 33 -0
32 34 -0
32 35 -0
32 36 -0
32 37 -0
32 38 -0
32 39 -0
32 40 -0
32 41 -0
32 42 -0
32 43 -0
32 44 -0
32 45 -0
32 46 -0
32 47 -0
32 48 -0
32 49 -0
32 50 -0
32 51 -0
32 52 -0
32 53 -0
32 54 -0
32 55 -0
32 56 -0
32 57 -0
32 58 -0
32 59 -0
32 60 -0
32 61 -0
32 62 -0
32 63 -0
32 64 -0
32 65 -0
32 66 -0
32 67 -0
32 68 -0
32 69 -0
32 70 -0
32 71 -0
32 72 -0
32 73 -0
32 74 -0
32 75 -0
32 76 -0
32 77 -0
32 78 -0
32 79 -0
32 80 -0
32 81 -0
32 82 -0
32 83 -0
32 84 -0
32 85 -0
32 86 -0
32 87 -0
32 88 -0
32 89 -0
32 90 -0
32 91 -0
32 92 89.5
32 93 89.5
32 94 89.5
32 95 89.5
32 96 27.499996
32 97 27.499996
32 98 27.499996
32 99 27.399998
32 100 27.299997
32 101 26.899998
32 102 26.899998
32 103 27.199997
32 104 27.599997
32 105 28.499996
32 106 28.599997
32 107 28.399998
32 108 28.199997
32 109 89.5
32 110 36.699997
32 111 36.999996
32 112 89.5
32 113 38.499996
32 114 38.999996
32 115 39.199997
32 116 39.499996
32 117 39.799999
32 118 39.899998
32 119 39.899998
32 120 39.899998
32 121 39.799999
32 122 39.599998
32 123 39.499996
32 124 39.299999
32 125 39.399998
32 126 39.399998
32 127 39.299999
32 128 89.5
32 129 89.5
32 130 89.5
32 131 89.5
32 132 89.5
32 133 28.099997
32 134 27.999996
32 135 28.099997
32 136 28.099997
32 137 28.299997
32 138 28.499996
32 139 28.999996
32 140 29.299997
32 141 29.399998
32 142 29.499998
32 143 29.499998
32 144 29.499998
32 145 29.499998
32 146 29.399998
32 147 -0
32 148 -0
32 149 -0
32 150 -0
32 151 -0
32 152 -0
32 153 -0
32 154 -0
32 155 -0
32 156 -0
32 157 -0
32 158 -0
32 159 -0
32 160 -0
32 161 -0
32 162 -0
32 163 -0
32 164 -0
32 165 -0
32 166 -0
32 167 -0
32 168 -0
32 169 -0
32 170 -0
32 171 -0
32 172 -0
32 173 -0
32 174 -0
32 175 -0
32 176 89.5
32 177 89.5
32 178 89.5
32 179 89.5
33 0 -0
33 1 -0
33 2 -0
33 3 -0
33 4 -0
33 5 -0
33 6 -0
33 7 -0
33 8 -0
33 9 -0
33 10 -0
33 11 -0
33 12 -0
33 13 -0
33 14 -0
33 15 -0
33 16 -0
33 17 -0
33 18 -0
33 19 -0
33 20 -0
33 21 -0
33 22 -0
33 23 -0
33 24 -0
33 25 -0
33 26 -0
33 27 -0
33 28 -0
33 29 -0
33 30 -0
33 31 -0
33 32 -0
33 33 -0
33 34 -0
33 35 -0
33 36 -0
33 37 -0
33 38 -0
33 39 -0
33 40 -0
33 41 -0
33 42 -0
33 43 -0
33 44 -0
33 45 -0
33 46 -0
33 47 -0
33 48 -0
33 49 -0
33 50 -0
33 51 -0
33 52 -0
33 53 -0
33 54 -0
33 55 -0
33 56 -0
33 57 -0
33 58 -0
33 59 -0
33 60 -0
33 61 -0
33 62 -0
33 63 -0
33 64 -0
33 65 -0
33 66 -0
33 67 -0
33 68 -0
33 69 -0
33 70 -0
33 71 -0
33 72 -0
33 73 -0
33 74 -0
33 75 -0
33 76 -0
33 77 -0
33 78 -0
33 79 -0
33 80 -0
33 81 -0
33 82 -0
33 83 -0
33 84 -0
33 85 -0
33 86 -0
33 87 -0
33 88 -0
33 89 -0
33 90 -0
33 91 89.5
33 92 89.5
33 93 16.599997
33 94 16.899996
33 95 17.399996
33 96 89.5
33 97 27.899998
33 98 27.999996
33 99 28.099997
33 100 28.099997
33 101 28.099997
33 102 28.099997
33 103 27.999996
33 104 27.899998
33 105 27.399998
33 106 27.199997
33 107 27.199997
33 108 27.399998
33 109 27.499996
33 110 89.5
33 111 37.699997
33 112 37.999996
33 113 38.499996
33 114 38.999996
33 115 39.199997
33 116 39.499996
33 117 39.799999
33 118 39.899998
33 119 39.899998
33 120 39.999996
33 121 39.999996
33 122 39.999996
33 123 39.899998
33 124 39.899998
33 125 39.799999
33 126 39.799999
33 127 39.699997
33 128 39.599998
33 129 89.5
33 130 89.5
33 131 89.5
33 132 89.5
33 133 26.199997
33 134 26.399998
33 135 26.699997
33 136 27.499996
33 137 28.399998
33 138 28.899998
33 139 29.299997
33 140 29.499998
33 141 29.599997
33 142 29.899998
33 143 29.899998
33 144 29.699997
33 145 29.699997
33 146 29.599997
33 147 -0
33 148 -0
33 149 -0
33 150 -0
33 151 -0
33 152 -0
33 153 -0
33 154 -0
33 155 -0
33 156 -0
33 157 -0
33 158 -0
33 159 -0
33 160 -0
33 161 -0
33 162 -0
33 163 -0
33 164 -0
33 165 -0
33 166 -0
33 167 -0
33 168 -0
33 169 89.5
33 170 89.5
33 171 28.099997
33 172 28.299997
33 173 28.599997
33 174 29.299997
33 175 89.5
33 176 30.399998
33 177 30.999998
33 178 31.399998
33 179 89.5
34 0 -0
34 1 -0
34 2 -0
34 3 -0
34 4 -0
34 5 -0
34 6 -0
34 7 -0
34 8 -0
34 9 -0
34 10 -0
34 11 -0
34 12 -0
34 13 -0
34 14 -0
34 15 -0
34 16 -0
34 17 -0
34 18 -0
34 19 -0
34 20 -0
34 21 -0
34 22 -0
34 23 -0
34 24 -0
34 25 -0
34 26 -0
34 27 -0
34 28 -0
34 29 -0
34 30 -0
34 31 -0
34 32 -0
34 33 -0
34 34 -0
34 35 -0
34 36 -0
34 37 -0
34 38 -0
34 39 -0
34 40 -0
34 41 -0
34 42 -0
34 43 -0
34 44 -0
34 45 -0
34 46 -0
34 47 -0
34 48 -0
34 49 -0
34 50 -0
34 51 -0
34 52 -0
34 53 -0
34 54 -0
34 55 -0
34 56 -0
34 57 -0
34 58 -0
34 59 -0
34 60 -0
34 61 -0
34 62 -0
34 63 -0
34 64 -0
34 65 -0
34 66 -0
34 67 -0
34 68 -0
34 69 -0
34 70 -0
34 71 -0
34 72 -0
34 73 -0
34 74 -0
34 75 -0
34 76 -0
34 77 -0
34 78 -0
34 79 -0
34 80 -0
34 81 -0
34 82 -0
34 83 -0
34 84 -0
34 85 -0
34 86 -0
34 87 -0
34 88 89.5
34 89 89.5
34 90 18.799997
34 91 18.899996
34 92 18.999996
34 93 19.199997
34 94 19.599997
34 95 20.099997
34 96 89.5
34 97 28.299997
34 98 28.299997
34 99 28.499996
34 100 28.999996
34 101 29.399998
34 102 30.199997
34 103 30.399998
34 104 29.699997
34 105 28.399998
34 106 27.599997
34 107 27.499996
34 108 27.999996
34 109 28.299997
34 110 28.599997
34 111 29.099997
34 112 89.5
34 113 89.5
34 114 38.599998
34 115 38.999996
34 116 39.399998
34 117 39.699997
34 118 39.799999
34 119 39.899998
34 120 39.899998
34 121 39.999996
34 122 39.999996
34 123 40.099998
34 124 40.099998
34 125 39.999996
34 126 39.899998
34 127 39.899998
34 128 39.899998
34 129 89.5
34 130 89.5
34 131 89.5
34 132 27.999996
34 133 27.999996
34 134 28.199997
34 135 28.399998
34 136 28.999996
34 137 29.399998
34 138 29.499998
34 139 29.699997
34 140 30.099997
34 141 30.299997
34 142 30.899998
34 143 89.5
34 144 89.5
34 145 89.5
34 146 89.5
34 147 89.5
34 148 -0
34 149 -0
34 150 1.5999959
34 151 1.7999958
34 152 1.5999959
34 153 -0
34 154 -0
34 155 -0
34 156 -0
34 157 89.5
34 158 -0
34 159 -0
34 160 89.5
34 161 89.5
34 162 89.5
34 163 89.5
34 164 89.5
34 165 24.299997
34 166 24.599997
34 167 25.599997
34 168 26.499996
34 169 27.699997
34 170 28.499996
34 171 29.299997
34 172 29.599997
34 173 30.599997
34 174 31.599997
34 175 32.299995
34 176 33.499996
34 177 34.399998
34 178 34.799999
34 179 35.399998
35 0 -0
35 1 -0
35 2 -0
35 3 -0
35 4 -0
35 5 -0
35 6 -0
35 7 -0
35 8 -0
35 9 -0
35 10 -0
35 11 -0
35 12 -0
35 13 -0
35 14 -0
35 15 -0
35 16 -0
35 17 -0
35 18 -0
35 19 -0
35 20 -0
35 21 -0
35 22 -0
35 23 -0
35 24 -0
35 25 -0
35 26 -0
35 27 -0
35 28 -0
35 29 -0
35 30 -0
35 31 -0
35 32 -0
35 33 -0
35 34 -0
35 35 -0
35 36 -0
35 37 -0
35 38 -0
35 39 -0
35 40 -0
35 41 -0
35 42 -0
35 43 -0
35 44 -0
35 45 -0
35 46 -0
35 47 -0
35 48 -0
35 49 -0
35 50 -0
35 51 -0
35 52 -0
35 53 -0
35 54 -0
35 55 -0
35 56 -0
35 57 -0
35 58 -0
35 59 -0
35 60 -0
35 61 -0
35 62 -0
35 63 -0
35 64 -0
35 65 -0
35 66 -0
35 67 -0
35 68 -0
35 69 -0
35 70 -0
35 71 -0
35 72 -0
35 73 -0
35 74 -0
35 75 -0
35 76 -0
35 77 -0
35 78 -0
35 79 -0
35 80 -0
35 81 -0
35 82 -0
35 83 -0
35 84 -0
35 85 -0
35 86 -0
35 87 89.5
35 88 20.199997
35 89 20.299997
35 90 20.499996
35 91 20.799997
35 92 21.099997
35 93 21.399998
35 94 21.599997
35 95 21.599997
35 96 21.799997
35 97 89.5
35 98 28.499996
35 99 28.699997
35 100 29.199997
35 101 29.399998
35 102 30.199997
35 103 30.399998
35 104 30.999998
35 105 31.199997
35 106 30.699997
35 107 89.5
35 108 89.5
35 109 89.5
35 110 34.299999
35 111 34.799999
35 112 35.299999
35 113 35.999996
35 114 89.5
35 115 89.5
35 116 39.199997
35 117 39.199997
35 118 39.199997
35 119 39.199997
35 120 39.299999
35 121 39.499996
35 122 39.699997
35 123 39.899998
35 124 39.899998
35 125 39.899998
35 126 39.899998
35 127 39.899998
35 128 89.5
35 129 89.5
35 130 89.5
35 131 89.5
35 132 28.299997
35 133 28.399998
35 134 28.899998
35 135 29.299997
35 136 29.599997
35 137 29.899998
35 138 30.199997
35 139 30.399998
35 140 30.699997
35 141 31.899998
35 142 32.899998
35 143 33.099998
35 144 33.799999
35 145 34.099998
35 146 89.5
35 147 89.5
35 148 89.5
35 149 89.5
35 150 89.5
35 151 89.5
35 152 89.5
35 153 89.5
35 154 89.5
35 155 89.5
35 156 89.5
35 157 89.5
35 158 89.5
35 159 89.5
35 160 89.5
35 161 89.5
35 162 89.5
35 163 89.5
35 164 89.5
35 165 89.5
35 166 89.5
35 167 89.5
35 168 89.5
35 169 89.5
35 170 29.699997
35 171 30.899998
35 172 31.399998
35 173 32.599998
35 174 33.599998
35 175 33.999996
35 176 34.699997
35 177 35.599998
35 178 36.099998
35 179 36.399998
36 0 -0
36 1 -0
36 2 -0
36 3 -0
36 4 -0
36 5 -0
36 6 -0
36 7 -0
36 8 -0
36 9 -0
36 10 -0
36 11 -0
36 12 -0
36 13 -0
36 14 -0
36 15 -0
36 16 -0
36 17 -0
36 18 -0
36 19 -0
36 20 -0
36 21 -0
36 22 -0
36 23 -0
36 24 -0
36 25 -0
36 26 -0
36 27 -0
36 28 -0
36 29 -0
36 30 -0
36 31 -0
36 32 -0
36 33 -0
36 34 -0
36 35 -0
36 36 -0
36 37 -0
36 38 -0
36 39 -0
36 40 -0
36 41 -0
36 42 -0
36 43 -0
36 44 -0
36 45 -0
36 46 -0
36 47 -0
36 48 -0
36 49 -0
36 50 -0
36 51 -0
36 52 -0
36 53 -0
36 54 -0
36 55 -0
36 56 -0
36 57 -0
36 58 -0
36 59 -0
36 60 -0
36 61 -0
36 62 -0
36 63 -0
36 64 -0
36 65 -0
36 66 -0
36 67 -0
36 68 -0
36 69 -0
36 70 -0
36 71 -0
36 72 -0
36 73 -0
36 74 -0
36 75 -0
36 76 -0
36 77 -0
36 78 -0
36 79 -0
36 80 -0
36 81 -0
36 82 -0
36 83 -0
36 84 -0
36 85 89.5
36 86 89.5
36 87 21.299997
36 88 21.599997
36 89 21.899998
36 90 22.699997
36 91 22.899998
36 92 22.899998
36 93 23.099997
36 94 23.199997
36 95 23.199997
36 96 23.299997
36 97 23.699997
36 98 23.899998
36 99 27.499996
36 100 28.499996
36 101 28.699997
36 102 29.299997
36 103 29.499998
36 104 30.399998
36 105 31.199997
36 106 31.399998
36 107 31.399998
36 108 31.399998
36 109 89.5
36 110 33.999996
36 111 34.199997
36 112 34.899998
36 113 35.999996
36 114 36.299999
36 115 36.499996
36 116 37.499996
36 117 37.899998
36 118 38.299999
36 119 38.499996
36 120 38.499996
36 121 38.599998
36 122 39.099998
36 123 39.199997
36 124 39.499996
36 125 39.699997
36 126 39.799999
36 127 39.799999
36 128 39.599998
36 129 89.5
36 130 89.5
36 131 29.299997
36 132 29.299997
36 133 29.299997
36 134 29.399998
36 135 29.399998
36 136 29.499998
36 137 29.799997
36 138 30.199997
36 139 30.499998
36 140 31.299997
36 141 32.199997
36 142 32.799995
36 143 33.199997
36 144 33.899998
36 145 34.399998
36 146 89.5
36 147 89.5
36 148 89.5
36 149 89.5
36 150 89.5
36 151 89.5
36 152 89.5
36 153 37.699997
36 154 89.5
36 155 89.5
36 156 89.5
36 157 89.5
36 158 89.5
36 159 37.799999
36 160 37.699997
36 161 89.5
36 162 89.5
36 163 89.5
36 164 89.5
36 165 89.5
36 166 37.099998
36 167 36.899998
36 168 36.999996
36 169 37.199997
36 170 37.399998
36 171 37.099998
36 172 89.5
36 173 35.699997
36 174 35.499996
36 175 35.599998
36 176 35.999996
36 177 36.499996
36 178 37.099998
36 179 37.299999
37 0 -0
37 1 -0
37 2 -0
37 3 -0
37 4 -0
37 5 -0
37 6 -0
37 7 -0
37 8 -0
37 9 -0
37 10 -0
37 11 -0
37 12 -0
37 13 -0
37 14 -0
37 15 -0
37 16 -0
37 17 -0
37 18 -0
37 19 -0
37 20 -0
37 21 -0
37 22 -0
37 23 -0
37 24 -0
37 25 -0
37 26 -0
37 27 -0
37 28 -0
37 29 -0
37 30 -0
37 31 -0
37 32 -0
37 33 -0
37 34 -0
37 35 -0
37 36 -0
37 37 -0
37 38 -0
37 39 -0
37 40 -0
37 41 -0
37 42 -0
37 43 -0
37 44 -0
37 45 -0
37 46 -0
37 47 -0
37 48 -0
37 49 -0
37 50 -0
37 51 -0
37 52 -0
37 53 -0
37 54 -0
37 55 -0
37 56 -0
37 57 -0
37 58 -0
37 59 -0
37 60 -0
37 61 -0
37 62 -0
37 63 -0
37 64 -0
37 65 -0
37 66 -0
37 67 -0
37 68 -0
37 69 -0
37 70 -0
37 71 -0
37 72 -0
37 73 -0
37 74 -0
37 75 -0
37 76 -0
37 77 -0
37 78 -0
37 79 -0
37 80 -0
37 81 -0
37 82 -0
37 83 -0
37 84 -0
37 85 89.5
37 86 89.5
37 87 89.5
37 88 24.099997
37 89 24.299997
37 90 24.499996
37 91 24.699997
37 92 24.799997
37 93 24.899998
37 94 24.799997
37 95 24.499996
37 96 24.299997
37 97 24.199997
37 98 24.199997
37 99 24.299997
37 100 27.599997
37 101 28.499996
37 102 28.999996
37 103 29.299997
37 104 29.699997
37 105 30.599997
37 106 31.399998
37 107 31.499998
37 108 31.699997
37 109 32.099998
37 110 89.5
37 111 89.5
37 112 89.5
37 113 36.299999
37 114 36.499996
37 115 36.799999
37 116 37.499996
37 117 37.899998
37 118 38.199997
37 119 38.399998
37 120 38.499996
37 121 38.499996
37 122 38.599998
37 123 38.699997
37 124 39.099998
37 125 39.199997
37 126 39.199997
37 127 39.099998
37 128 89.5
37 129 89.5
37 130 89.5
37 131 30.399998
37 132 30.399998
37 133 30.499998
37 134 30.399998
37 135 30.499998
37 136 30.799997
37 137 31.299997
37 138 31.399998
37 139 31.399998
37 140 31.699997
37 141 89.5
37 142 33.199997
37 143 33.499996
37 144 33.799999
37 145 33.899998
37 146 89.5
37 147 44.199997
37 148 44.399998
37 149 44.599998
37 150 89.5
37 151 89.5
37 152 37.699997
37 153 37.799999
37 154 37.799999
37 155 37.799999
37 156 37.699997
37 157 37.699997
37 158 37.799999
37 159 37.899998
37 160 37.899998
37 161 89.5
37 162 89.5
37 163 89.5
37 164 89.5
37 165 37.699997
37 166 37.799999
37 167 37.799999
37 168 37.899998
37 169 37.899998
37 170 37.799999
37 171 37.699997
37 172 37.299999
37 173 89.5
37 174 36.499996
37 175 36.399998
37 176 36.899998
37 177 37.199997
37 178 37.699997
37 179 38.099998
38 0 -0
38 1 -0
38 2 -0
38 3 -0
38 4 -0
38 5 -0
38 6 -0
38 7 -0
38 8 -0
38 9 -0
38 10 -0
38 11 -0
38 12 -0
38 13 -0
38 14 -0
38 15 -0
38 16 -0
38 17 -0
38 18 -0
38 19 -0
38 20 -0
38 21 -0
38 22 -0
38 23 -0
38 24 -0
38 25 -0
38 26 -0
38 27 -0
38 28 -0
38 29 -0
38 30 -0
38 31 -0
38 32 -0
38 33 -0
38 34 -0
38 35 -0
38 36 -0
38 37 -0
38 38 -0
38 39 -0
38 40 -0
38 41 -0
38 42 -0
38 43 -0
38 44 -0
38 45 -0
38 46 -0
38 47 -0
38 48 -0
38 49 -0
38 50 -0
38 51 -0
38 52 -0
38 53 -0
38 54 -0
38 55 -0
38 56 -0
38 57 -0
38 58 -0
38 59 -0
38 60 -0
38 61 -0
38 62 -0
38 63 -0
38 64 -0
38 65 -0
38 66 -0
38 67 -0
38 68 -0
38 69 -0
38 70 -0
38 71 -0
38 72 -0
38 73 -0
38 74 -0
38 75 -0
38 76 -0
38 77 -0
38 78 -0
38 79 -0
38 80 -0
38 81 -0
38 82 -0
38 83 -0
38 84 89.5
38 85 89.5
38 86 24.599997
38 87 24.999996
38 88 25.299997
38 89 25.699997
38 90 26.299997
38 91 26.399998
38 92 26.399998
38 93 26.399998
38 94 26.199997
38 95 25.599997
38 96 24.999996
38 97 89.5
38 98 89.5
38 99 89.5
38 100 89.5
38 101 47.799999
38 102 47.999996
38 103 48.199997
38 104 89.5
38 105 89.5
38 106 89.5
38 107 48.099998
38 108 48.199997
38 109 48.199997
38 110 48.299999
38 111 48.299999
38 112 48.399998
38 113 48.599998
38 114 89.5
38 115 89.5
38 116 89.5
38 117 89.5
38 118 89.5
38 119 38.499996
38 120 38.499996
38 121 38.599998
38 122 38.699997
38 123 38.799999
38 124 38.899998
38 125 38.899998
38 126 38.799999
38 127 38.699997
38 128 38.699997
38 129 38.699997
38 130 89.5
38 131 89.5
38 132 89.5
38 133 89.5
38 134 32.099998
38 135 32.199997
38 136 32.499996
38 137 32.899998
38 138 32.999996
38 139 32.999996
38 140 89.5
38 141 89.5
38 142 89.5
38 143 89.5
38 144 89.5
38 145 89.5
38 146 89.5
38 147 44.599998
38 148 44.799999
38 149 44.799999
38 150 44.899998
38 151 44.899998
38 152 44.999996
38 153 89.5
38 154 89.5
38 155 89.5
38 156 89.5
38 157 43.899998
38 158 43.899998
38 159 44.299999
38 160 89.5
38 161 89.5
38 162 89.5
38 163 89.5
38 164 89.5
38 165 37.699997
38 166 37.699997
38 167 37.699997
38 168 37.599998
38 169 37.599998
38 170 37.499996
38 171 37.499996
38 172 37.299999
38 173 37.199997
38 174 37.099998
38 175 37.099998
38 176 37.399998
38 177 37.799999
38 178 38.299999
38 179 38.499996
39 0 -0
39 1 -0
39 2 -0
39 3 -0
39 4 -0
39 5 -0
39 6 -0
39 7 -0
39 8 -0
39 9 -0
39 10 -0
39 11 -0
39 12 -0
39 13 -0
39 14 -0
39 15 -0
39 16 -0
39 17 -0
39 18 -0
39 19 -0
39 20 -0
39 21 -0
39 22 -0
39 23 -0
39 24 -0
39 25 -0
39 26 -0
39 27 -0
39 28 -0
39 29 -0
39 30 -0
39 31 -0
39 32 -0
39 33 -0
39 34 -0
39 35 -0
39 36 -0
39 37 -0
39 38 -0
39 39 -0
39 40 -0
39 41 -0
39 42 -0
39 43 -0
39 44 -0
39 45 -0
39 46 -0
39 47 -0
39 48 -0
39 49 -0
39 50 -0
39 51 -0
39 52 -0
39 53 -0
39 54 -0
39 55 -0
39 56 -0
39 57 -0
39 58 -0
39 59 -0
39 60 -0
39 61 -0
39 62 -0
39 63 -0
39 64 -0
39 65 -0
39 66 -0
39 67 -0
39 68 -0
39 69 -0
39 70 -0
39 71 -0
39 72 -0
39 73 -0
39 74 -0
39 75 -0
39 76 -0
39 77 -0
39 78 -0
39 79 -0
39 80 -0
39 81 89.5
39 82 89.5
39 83 89.5
39 84 89.5
39 85 25.299997
39 86 25.399998
39 87 25.899998
39 88 26.399998
39 89 26.699997
39 90 26.899998
39 91 26.799997
39 92 26.799997
39 93 89.5
39 94 89.5
39 95 89.5
39 96 89.5
39 97 89.5
39 98 89.5
39 99 48.599998
39 100 48.699997
39 101 48.899998
39 102 89.5
39 103 49.299999
39 104 49.599998
39 105 49.699997
39 106 49.699997
39 107 49.699997
39 108 49.599998
39 109 49.599998
39 110 49.599998
39 111 49.5
39 112 49.5
39 113 49.299999
39 114 49.199997
39 115 49.199997
39 116 49.299999
39 117 89.5
39 118 49.5
39 119 89.5
39 120 89.5
39 121 89.5
39 122 89.5
39 123 89.5
39 124 89.5
39 125 89.5
39 126 89.5
39 127 89.5
39 128 89.5
39 129 89.5
39 130 89.5
39 131 89.5
39 132 89.5
39 133 89.5
39 134 89.5
39 135 89.5
39 136 42.999996
39 137 42.999996
39 138 43.099998
39 139 43.499996
39 140 43.699997
39 141 43.799999
39 142 43.899998
39 143 43.899998
39 144 89.5
39 145 89.5
39 146 89.5
39 147 89.5
39 148 45.099998
39 149 45.099998
39 150 44.999996
39 151 44.999996
39 152 44.999996
39 153 89.5
39 154 89.5
39 155 89.5
39 156 89.5
39 157 44.699997
39 158 45.099998
39 159 45.299999
39 160 89.5
39 161 89.5
39 162 89.5
39 163 89.5
39 164 89.5
39 165 37.199997
39 166 37.099998
39 167 37.099998
39 168 37.199997
39 169 37.299999
39 170 37.299999
39 171 37.299999
39 172 37.199997
39 173 37.099998
39 174 37.299999
39 175 37.499996
39 176 37.699997
39 177 37.999996
39 178 89.5
39 179 89.5
40 0 -0
40 1 -0
40 2 -0
40 3 -0
40 4 -0
40 5 -0
40 6 -0
40 7 -0
40 8 -0
40 9 -0
40 10 -0
40 11 -0
40 12 -0
40 13 -0
40 14 -0
40 15 -0
40 16 -0
40 17 -0
40 18 -0
40 19 -0
40 20 -0
40 21 -0
40 22 -0
40 23 -0
40 24 -0
40 25 89.5
40 26 -0
40 27 -0
40 28 -0
40 29 -0
40 30 -0
40 31 -0
40 32 -0
40 33 -0
40 34 -0
40 35 -0
40 36 -0
40 37 -0
40 38 -0
40 39 -0
40 40 -0
40 41 -0
40 42 -0
40 43 -0
40 44 -0
40 45 -0
40 46 -0
40 47 -0
40 48 -0
40 49 -0
40 50 -0
40 51 -0
40 52 -0
40 53 -0
40 54 -0
40 55 -0
40 56 -0
40 57 -0
40 58 -0
40 59 -0
40 60 -0
40 61 -0
40 62 -0
40 63 -0
40 64 -0
40 65 -0
40 66 -0
40 67 -0
40 68 -0
40 69 -0
40 70 -0
40 71 -0
40 72 -0
40 73 -0
40 74 -0
40 75 -0
40 76 -0
40 77 89.5
40 78 89.5
40 79 89.5
40 80 17.099997
40 81 89.5
40 82 16.199997
40 83 89.5
40 84 89.5
40 85 27.399998
40 86 27.399998
40 87 27.599997
40 88 28.099997
40 89 28.199997
40 90 28.199997
40 91 89.5
40 92 89.5
40 93 89.5
40 94 89.5
40 95 89.5
40 96 89.5
40 97 48.399998
40 98 48.499996
40 99 48.699997
40 100 49.099998
40 101 49.5
40 102 50
40 103 50.399998
40 104 50.5
40 105 50.599998
40 106 50.599998
40 107 50.599998
40 108 50.599998
40 109 50.599998
40 110 50.599998
40 111 50.5
40 112 50.399998
40 113 50.399998
40 114 50.399998
40 115 50.299999
40 116 50.199997
40 117 50.099998
40 118 50
40 119 49.899998
40 120 49.799999
40 121 49.899998
40 122 49.899998
40 123 49.899998
40 124 89.5
40 125 49.699997
40 126 49.899998
40 127 50
40 128 50.299999
40 129 50.399998
40 130 89.5
40 131 89.5
40 132 89.5
40 133 89.5
40 134 89.5
40 135 89.5
40 136 89.5
40 137 89.5
40 138 89.5
40 139 89.5
40 140 89.5
40 141 89.5
40 142 33.799999
40 143 33.799999
40 144 89.5
40 145 89.5
40 146 89.5
40 147 49.199997
40 148 89.5
40 149 49.5
40 150 49.399998
40 151 49.5
40 152 89.5
40 153 50.699997
40 154 50.899998
40 155 51.199997
40 156 51.299999
40 157 51.5
40 158 89.5
40 159 89.5
40 160 89.5
40 161 89.5
40 162 89.5
40 163 89.5
40 164 89.5
40 165 46.799999
40 166 46.799999
40 167 46.699997
40 168 46.699997
40 169 46.699997
40 170 46.699997
40 171 46.699997
40 172 46.799999
40 173 46.999996
40 174 47.099998
40 175 46.999996
40 176 47.099998
40 177 89.5
40 178 89.5
40 179 89.5
41 0 -0
41 1 -0
41 2 -0
41 3 -0
41 4 -0
41 5 -0
41 6 -0
41 7 -0
41 8 -0
41 9 -0
41 10 -0
41 11 -0
41 12 -0
41 13 -0
41 14 -0
41 15 -0
41 16 -0
41 17 -0
41 18 -0
41 19 -0
41 20 -0
41 21 -0
41 22 -0
41 23 -0
41 24 -0
41 25 -0
41 26 -0
41 27 -0
41 28 -0
41 29 -0
41 30 -0
41 31 -0
41 32 -0
41 33 -0
41 34 -0
41 35 -0
41 36 -0
41 37 -0
41 38 -0
41 39 -0
41 40 -0
41 41 -0
41 42 -0
41 43 -0
41 44 -0
41 45 -0
41 46 -0
41 47 -0
41 48 -0
41 49 -0
41 50 -0
41 51 -0
41 52 -0
41 53 -0
41 54 -0
41 55 -0
41 56 -0
41 57 -0
41 58 -0
41 59 -0
41 60 -0
41 61 -0
41 62 -0
41 63 -0
41 64 -0
41 65 -0
41 66 -0
41 67 -0
41 68 -0
41 69 -0
41 70 -0
41 71 -0
41 72 -0
41 73 -0
41 74 -0
41 75 89.5
41 76 89.5
41 77 89.5
41 78 20.999996
41 79 21.099997
41 80 89.5
41 81 28.599997
41 82 28.399998
41 83 28.299997
41 84 27.899998
41 85 27.499996
41 86 27.499996
41 87 28.099997
41 88 28.399998
41 89 28.499996
41 90 89.5
41 91 36.299999
41 92 36.599998
41 93 37.099998
41 94 89.5
41 95 89.5
41 96 89.5
41 97 48.799999
41 98 48.899998
41 99 49.199997
41 100 49.799999
41 101 50.199997
41 102 50.699997
41 103 51
41 104 51.199997
41 105 51.199997
41 106 51.299999
41 107 51.199997
41 108 51.199997
41 109 51.199997
41 110 51.199997
41 111 51.199997
41 112 51.199997
41 113 51.099998
41 114 51.099998
41 115 51
41 116 51
41 117 50.899998
41 118 50.799999
41 119 50.699997
41 120 50.599998
41 121 50.699997
41 122 50.799999
41 123 51.099998
41 124 51.099998
41 125 51
41 126 50.899998
41 127 50.899998
41 128 51
41 129 51
41 130 51.099998
41 131 51.099998
41 132 51.199997
41 133 51.099998
41 134 50.799999
41 135 50.599998
41 136 50.5
41 137 50.599998
41 138 89.5
41 139 89.5
41 140 89.5
41 141 89.5
41 142 89.5
41 143 89.5
41 144 89.5
41 145 89.5
41 146 89.5
41 147 50.099998
41 148 50.399998
41 149 50.399998
41 150 50.399998
41 151 50.799999
41 152 50.799999
41 153 50.899998
41 154 51.099998
41 155 51.199997
41 156 51.199997
41 157 51.299999
41 158 89.5
41 159 89.5
41 160 89.5
41 161 89.5
41 162 89.5
41 163 89.5
41 164 89.5
41 165 47.799999
41 166 47.899998
41 167 47.799999
41 168 47.799999
41 169 47.799999
41 170 47.699997
41 171 47.499996
41 172 47.399998
41 173 47.399998
41 174 47.699997
41 175 47.699997
41 176 47.799999
41 177 89.5
41 178 89.5
41 179 89.5
42 0 -0
42 1 -0
42 2 -0
42 3 -0
42 4 -0
42 5 -0
42 6 -0
42 7 -0
42 8 -0
42 9 -0
42 10 -0
42 11 -0
42 12 -0
42 13 -0
42 14 -0
42 15 -0
42 16 -0
42 17 -0
42 18 -0
42 19 -0
42 20 -0
42 21 -0
42 22 -0
42 23 -0
42 24 -0
42 25 -0
42 26 -0
42 27 -0
42 28 -0
42 29 -0
42 30 -0
42 31 -0
42 32 -0
42 33 -0
42 34 -0
42 35 -0
42 36 -0
42 37 -0
42 38 -0
42 39 -0
42 40 -0
42 41 -0
42 42 -0
42 43 -0
42 44 -0
42 45 -0
42 46 -0
42 47 -0
42 48 -0
42 49 -0
42 50 -0
42 51 -0
42 52 -0
42 53 -0
42 54 -0
42 55 -0
42 56 -0
42 57 -0
42 58 -0
42 59 -0
42 60 -0
42 61 -0
42 62 -0
42 63 -0
42 64 -0
42 65 -0
42 66 -0
42 67 -0
42 68 -0
42 69 -0
42 70 -0
42 71 -0
42 72 -0
42 73 -0
42 74 -0
42 75 89.5
42 76 89.5
42 77 21.699997
42 78 21.899998
42 79 29.099997
42 80 28.799997
42 81 28.799997
42 82 28.599997
42 83 28.499996
42 84 28.399998
42 85 28.299997
42 86 28.299997
42 87 28.399998
42 88 28.599997
42 89 28.899998
42 90 89.5
42 91 89.5
42 92 35.299999
42 93 36.099998
42 94 89.5
42 95 89.5
42 96 89.5
42 97 49.699997
42 98 49.899998
42 99 50.399998
42 100 50.799999
42 101 51
42 102 51.299999
42 103 51.599998
42 104 51.699997
42 105 51.799999
42 106 51.899998
42 107 51.899998
42 108 51.799999
42 109 51.799999
42 110 51.799999
42 111 51.799999
42 112 51.699997
42 113 51.699997
42 114 51.599998
42 115 51.599998
42 116 51.5
42 117 51.5
42 118 51.399998
42 119 51.299999
42 120 51.299999
42 121 51.299999
42 122 51.399998
42 123 51.5
42 124 51.5
42 125 51.399998
42 126 51.5
42 127 51.5
42 128 51.599998
42 129 51.599998
42 130 51.599998
42 131 51.599998
42 132 51.699997
42 133 51.699997
42 134 51.699997
42 135 51.599998
42 136 51.299999
42 137 51.199997
42 138 51.199997
42 139 51.299999
42 140 89.5
42 141 89.5
42 142 89.5
42 143 89.5
42 144 89.5
42 145 89.5
42 146 89.5
42 147 50.5
42 148 50.799999
42 149 50.899998
42 150 51.199997
42 151 51.299999
42 152 51.199997
42 153 51.199997
42 154 51.199997
42 155 51.299999
42 156 51.5
42 157 51.5
42 158 89.5
42 159 89.5
42 160 89.5
42 161 89.5
42 162 89.5
42 163 89.5
42 164 89.5
42 165 48.799999
42 166 48.799999
42 167 48.899998
42 168 48.899998
42 169 48.899998
42 170 48.899998
42 171 48.699997
42 172 48.699997
42 173 48.699997
42 174 48.699997
42 175 48.599998
42 176 48.599998
42 177 89.5
42 178 89.5
42 179 89.5
43 0 -0
43 1 -0
43 2 -0
43 3 -0
43 4 -0
43 5 -0
43 6 -0
43 7 -0
43 8 -0
43 9 -0
43 10 -0
43 11 -0
43 12 -0
43 13 -0
43 14 -0
43 15 -0
43 16 -0
43 17 -0
43 18 -0
43 19 -0
43 20 -0
43 21 -0
43 22 -0
43 23 -0
43 24 -0
43 25 -0
43 26 -0
43 27 -0
43 28 -0
43 29 -0
43 30 -0
43 31 -0
43 32 -0
43 33 -0
43 34 -0
43 35 -0
43 36 -0
43 37 -0
43 38 -0
43 39 -0
43 40 -0
43 41 -0
43 42 -0
43 43 -0
43 44 -0
43 45 -0
43 46 -0
43 47 -0
43 48 -0
43 49 -0
43 50 -0
43 51 -0
43 52 -0
43 53 -0
43 54 -0
43 55 -0
43 56 -0
43 57 -0
43 58 -0
43 59 -0
43 60 -0
43 61 -0
43 62 -0
43 63 -0
43 64 -0
43 65 -0
43 66 -0
43 67 -0
43 68 -0
43 69 -0
43 70 -0
43 71 -0
43 72 -0
43 73 -0
43 74 89.5
43 75 89.5
43 76 29.599997
43 77 29.499998
43 78 29.399998
43 79 29.399998
43 80 29.399998
43 81 30.199997
43 82 30.999998
43 83 89.5
43 84 32.199997
43 85 89.5
43 86 89.5
43 87 89.5
43 88 34.899998
43 89 34.699997
43 90 34.699997
43 91 34.699997
43 92 34.999996
43 93 35.499996
43 94 35.799999
43 95 89.5
43 96 89.5
43 97 50.5
43 98 50.899998
43 99 51.5
43 100 51.699997
43 101 51.899998
43 102 52
43 103 52.099998
43 104 52.299999
43 105 52.299999
43 106 52.399998
43 107 52.399998
43 108 52.399998
43 109 52.399998
43 110 52.399998
43 111 52.399998
43 112 52.299999
43 113 52.299999
43 114 52.299999
43 115 52.299999
43 116 52.199997
43 117 52
43 118 52
43 119 51.899998
43 120 51.899998
43 121 51.899998
43 122 52
43 123 52
43 124 52
43 125 52.099998
43 126 52.099998
43 127 52.099998
43 128 52.099998
43 129 52.199997
43 130 52.199997
43 131 52.299999
43 132 52.299999
43 133 52.299999
43 134 52.299999
43 135 52.299999
43 136 52.199997
43 137 52
43 138 52
43 139 52
43 140 89.5
43 141 89.5
43 142 89.5
43 143 89.5
43 144 89.5
43 145 89.5
43 146 89.5
43 147 51.299999
43 148 51.299999
43 149 51.5
43 150 51.599998
43 151 51.799999
43 152 51.899998
43 153 89.5
43 154 51.599998
43 155 51.599998
43 156 51.599998
43 157 51.5
43 158 89.5
43 159 89.5
43 160 89.5
43 161 89.5
43 162 89.5
43 163 89.5
43 164 89.5
43 165 49.699997
43 166 49.599998
43 167 49.699997
43 168 49.699997
43 169 49.699997
43 170 49.699997
43 171 49.799999
43 172 49.799999
43 173 49.799999
43 174 49.799999
43 175 49.699997
43 176 49.699997
43 177 89.5
43 178 89.5
43 179 89.5
44 0 -0
44 1 -0
44 2 -0
44 3 -0
44 4 -0
44 5 -0
44 6 -0
44 7 -0
44 8 -0
44 9 -0
44 10 -0
44 11 -0
44 12 -0
44 13 -0
44 14 -0
44 15 -0
44 16 -0
44 17 -0
44 18 -0
44 19 -0
44 20 -0
44 21 -0
44 22 -0
44 23 -0
44 24 -0
44 25 -0
44 26 -0
44 27 -0
44 28 -0
44 29 -0
44 30 -0
44 31 -0
44 32 -0
44 33 -0
44 34 -0
44 35 -0
44 36 -0
44 37 -0
44 38 -0
44 39 -0
44 40 -0
44 41 -0
44 42 -0
44 43 -0
44 44 -0
44 45 -0
44 46 -0
44 47 -0
44 48 -0
44 49 -0
44 50 -0
44 51 -0
44 52 -0
44 53 -0
44 54 -0
44 55 -0
44 56 -0
44 57 -0
44 58 -0
44 59 -0
44 60 -0
44 61 -0
44 62 -0
44 63 -0
44 64 -0
44 65 -0
44 66 -0
44 67 -0
44 68 -0
44 69 -0
44 70 -0
44 71 89.5
44 72 89.5
44 73 89.5
44 74 30.499998
44 75 30.399998
44 76 29.999998
44 77 29.599997
44 78 29.899998
44 79 30.499998
44 80 31.599997
44 81 32.199997
44 82 32.999996
44 83 33.399998
44 84 34.599998
44 85 35.699997
44 86 36.299999
44 87 37.099998
44 88 37.799999
44 89 37.899998
44 90 38.099998
44 91 38.599998
44 92 38.799999
44 93 39.199997
44 94 89.5
44 95 89.5
44 96 89.5
44 97 50.699997
44 98 51.299999
44 99 52
44 100 52.199997
44 101 52.299999
44 102 52.399998
44 103 52.5
44 104 52.599998
44 105 52.699997
44 106 52.699997
44 107 52.699997
44 108 52.699997
44 109 52.799999
44 110 52.799999
44 111 52.799999
44 112 52.799999
44 113 52.799999
44 114 52.699997
44 115 52.699997
44 116 52.699997
44 117 52.699997
44 118 52.599998
44 119 52.5
44 120 52.5
44 121 52.5
44 122 52.599998
44 123 52.699997
44 124 52.699997
44 125 52.699997
44 126 52.699997
44 127 52.699997
44 128 52.699997
44 129 52.699997
44 130 52.699997
44 131 52.799999
44 132 52.799999
44 133 52.799999
44 134 52.799999
44 135 52.799999
44 136 52.899998
44 137 53
44 138 53
44 139 52.899998
44 140 89.5
44 141 89.5
44 142 89.5
44 143 89.5
44 144 89.5
44 145 89.5
44 146 89.5
44 147 52.199997
44 148 52.199997
44 149 52.199997
44 150 52.199997
44 151 52.299999
44 152 52.399998
44 153 52.5
44 154 52.399998
44 155 52.299999
44 156 52.199997
44 157 52.099998
44 158 89.5
44 159 89.5
44 160 89.5
44 161 89.5
44 162 89.5
44 163 89.5
44 164 89.5
44 165 50.5
44 166 50.399998
44 167 50.399998
44 168 50.399998
44 169 50.399998
44 170 50.399998
44 171 50.399998
44 172 50.5
44 173 50.5
44 174 50.5
44 175 50.5
44 176 89.5
44 177 89.5
44 178 89.5
44 179 89.5
45 0 -0
45 1 -0
45 2 -0
45 3 -0
45 4 -0
45 5 -0
45 6 -0
45 7 -0
45 8 -0
45 9 -0
45 10 -0
45 11 -0
45 12 -0
45 13 -0
45 14 -0
45 15 -0
45 16 -0
45 17 -0
45 18 -0
45 19 -0
45 20 -0
45 21 -0
45 22 -0
45 23 -0
45 24 -0
45 25 -0
45 26 -0
45 27 -0
45 28 -0
45 29 -0
45 30 -0
45 31 -0
45 32 -0
45 33 -0
45 34 -0
45 35 -0
45 36 -0
45 37 -0
45 38 -0
45 39 -0
45 40 -0
45 41 -0
45 42 -0
45 43 -0
45 44 -0
45 45 -0
45 46 -0
45 47 -0
45 48 -0
45 49 -0
45 50 -0
45 51 -0
45 52 -0
45 53 -0
45 54 -0
45 55 -0
45 56 -0
45 57 -0
45 58 -0
45 59 -0
45 60 -0
45 61 -0
45 62 -0
45 63 -0
45 64 -0
45 65 -0
45 66 -0
45 67 89.5
45 68 89.5
45 69 89.5
45 70 31.999998
45 71 31.999998
45 72 31.899998
45 73 31.699997
45 74 31.299997
45 75 30.699997
45 76 29.799997
45 77 30.499998
45 78 31.399998
45 79 32.299995
45 80 32.999996
45 81 33.399998
45 82 33.799999
45 83 34.099998
45 84 37.499996
45 85 37.799999
45 86 38.499996
45 87 39.199997
45 88 39.699997
45 89 40.399998
45 90 41.199997
45 91 41.899998
45 92 42.799999
45 93 89.5
45 94 89.5
45 95 89.5
45 96 89.5
45 97 51.199997
45 98 51.5
45 99 52.299999
45 100 52.599998
45 101 52.699997
45 102 52.799999
45 103 52.899998
45 104 53
45 105 53
45 106 53
45 107 53.099998
45 108 53.099998
45 109 53.099998
45 110 53.099998
45 111 53.099998
45 112 53.199997
45 113 53.199997
45 114 53.099998
45 115 53.099998
45 116 53.099998
45 117 53.099998
45 118 53
45 119 52.899998
45 120 52.899998
45 121 53
45 122 53.099998
45 123 53.099998
45 124 53.099998
45 125 53.099998
45 126 53.099998
45 127 53.099998
45 128 53.099998
45 129 53.099998
45 130 53.099998
45 131 53.099998
45 132 53.099998
45 133 53.099998
45 134 53.099998
45 135 53.199997
45 136 53.299999
45 137 53.399998
45 138 53.399998
45 139 53.5
45 140 89.5
45 141 89.5
45 142 89.5
45 143 89.5
45 144 89.5
45 145 89.5
45 146 89.5
45 147 52.699997
45 148 52.699997
45 149 52.599998
45 150 52.599998
45 151 52.699997
45 152 52.699997
45 153 52.899998
45 154 53
45 155 53
45 156 53
45 157 89.5
45 158 89.5
45 159 89.5
45 160 89.5
45 161 89.5
45 162 89.5
45 163 89.5
45 164 89.5
45 165 51.099998
45 166 51.099998
45 167 51
45 168 50.899998
45 169 50.899998
45 170 50.899998
45 171 51
45 172 51
45 173 51
45 174 51
45 175 51
45 176 89.5
45 177 89.5
45 178 89.5
45 179 89.5
46 0 -0
46 1 -0
46 2 -0
46 3 -0
46 4 -0
46 5 -0
46 6 -0
46 7 -0
46 8 -0
46 9 -0
46 10 -0
46 11 -0
46 12 -0
46 13 -0
46 14 -0
46 15 -0
46 16 -0
46 17 -0
46 18 -0
46 19 -0
46 20 -0
46 21 -0
46 22 -0
46 23 -0
46 24 -0
46 25 -0
46 26 -0
46 27 -0
46 28 -0
46 29 -0
46 30 -0
46 31 -0
46 32 -0
46 33 -0
46 34 -0
46 35 -0
46 36 -0
46 37 -0
46 38 -0
46 39 -0
46 40 -0
46 41 -0
46 42 -0
46 43 -0
46 44 -0
46 45 -0
46 46 -0
46 47 -0
46 48 -0
46 49 -0
46 50 -0
46 51 -0
46 52 -0
46 53 -0
46 54 -0
46 55 -0
46 56 -0
46 57 -0
46 58 -0
46 59 -0
46 60 -0
46 61 -0
46 62 -0
46 63 -0
46 64 89.5
46 65 89.5
46 66 89.5
46 67 31.999998
46 68 32.099998
46 69 32.199997
46 70 32.299995
46 71 32.199997
46 72 89.5
46 73 89.5
46 74 89.5
46 75 21.699997
46 76 21.599997
46 77 21.999996
46 78 89.5
46 79 89.5
46 80 34.699997
46 81 34.799999
46 82 35.099998
46 83 37.999996
46 84 38.599998
46 85 39.699997
46 86 40.399998
46 87 41.199997
46 88 42.199997
46 89 42.499996
46 90 42.999996
46 91 43.499996
46 92 44.099998
46 93 44.699997
46 94 44.799999
46 95 89.5
46 96 89.5
46 97 89.5
46 98 52.199997
46 99 52.399998
46 100 52.699997
46 101 53
46 102 53.099998
46 103 53.199997
46 104 53.199997
46 105 53.299999
46 106 53.299999
46 107 53.399998
46 108 53.399998
46 109 53.399998
46 110 53.399998
46 111 53.399998
46 112 53.399998
46 113 53.399998
